ply
format ascii 1.0
element vertex 464
property float x
property float y
property float z
end_header
-304043.843750 853987.250000 -15654.361328
-158199.796875 681829.687500 8102.535156
68764.171875 430831.468750 42062.226562
105722.679688 77891.742188 67938.062500
-314554.843750 588269.625000 -3900.243164
-568507.687500 793394.062500 -29049.927734
-95531.132812 336189.562500 28488.867188
-228858.375000 788861.500000 -6808.345215
229150.781250 148401.437500 61653.382812
475803.000000 291887.812500 47876.503906
723941.500000 438432.125000 33609.078125
37590.644531 168621.765625 48846.281250
-223005.906250 533079.937500 7213.327148
-63907.945312 1124866.000000 -59691.667969
354683.250000 222023.890625 54472.417969
-652163.375000 215344.031250 -9864.833008
600344.250000 365203.031250 40588.039062
850611.375000 514351.937500 26980.259766
-371389.968750 707667.187500 -16240.742188
-184388.203125 1054269.875000 -53278.433594
-9353.979492 523830.968750 26599.908203
-550154.500000 838671.500000 -32867.324219
-932367.812500 -141774.609375 -21330.955078
58977.199219 1196109.000000 -66496.039062
-550866.687500 -17593.683594 14165.405273
-663216.062500 675563.500000 -29090.414062
296821.093750 -704324.750000 -53560.484375
-201038.312500 996082.125000 -46877.375000
-147399.781250 452610.468750 17438.072266
-905.233215 278812.843750 41075.871094
-425651.718750 913283.312500 -39647.312500
185785.281250 1277965.750000 -72498.359375
-314104.375000 937129.000000 -37562.855469
-512121.875000 45668.234375 12317.770508
-791679.062500 -311530.218750 1117.797119
-550758.812500 782768.187500 -28558.824219
-305584.687500 979497.562500 -45991.429688
40625.222656 -427982.687500 23109.099609
315340.687500 -671216.000000 -52024.585938
-435725.750000 861351.750000 -32690.439453
-78280.195312 1070671.625000 -53525.089844
573574.437500 -346306.750000 -44367.960938
-825461.625000 -371491.031250 3933.085938
-236537.906250 -788997.437500 11829.703125
505019.937500 -54699.492188 5948.724121
366284.281250 -28434.435547 26515.089844
-635747.937500 225933.796875 -9565.120117
-695799.500000 150897.046875 -9264.884766
512420.500000 -517685.531250 -49923.960938
-648199.812500 566413.812500 -29142.527344
-972773.937500 -206207.515625 -20772.804688
-247912.453125 504099.531250 8141.562012
123376.734375 357467.718750 47574.089844
645262.500000 -83996.429688 -13729.774414
940691.000000 408306.593750 7088.775391
1014631.812500 237592.625000 -17139.564453
982647.500000 496564.031250 14303.698242
696889.500000 368980.406250 39423.625000
277091.031250 -473500.187500 -13464.924805
913203.625000 209955.125000 -15472.726562
453305.750000 244654.390625 53749.652344
955918.000000 85157.195312 -31670.425781
984692.187500 377064.687500 2881.133545
-362892.093750 137033.453125 20466.568359
357451.625000 377278.218750 30500.671875
528677.625000 -432456.562500 -46085.312500
957311.125000 -92853.562500 -48677.261719
238560.500000 -873939.062500 -59827.980469
50.269737 -833319.062500 -24074.349609
824214.375000 443853.218750 34171.710938
931312.125000 304921.906250 -4605.643555
-758056.375000 -47995.253906 -11210.621094
84524.976562 -354297.562500 25962.289062
-671058.187500 535929.812500 -29411.142578
906960.250000 -71626.382812 -48102.007812
476807.406250 -57335.949219 9153.851562
-649669.125000 283515.000000 -14608.883789
43648.390625 1145754.000000 -60204.492188
-579802.937500 23010.480469 9196.598633
-394537.093750 678517.500000 -15226.638672
209738.703125 99341.429688 67659.664062
954479.000000 -8863.675781 -42105.687500
-281748.593750 -156668.015625 43251.472656
-778678.125000 422456.843750 -35218.339844
911859.625000 111561.703125 -28541.824219
574974.437500 300330.250000 46843.773438
-190608.640625 32091.078125 43158.785156
346665.250000 -523071.687500 -32587.689453
-685189.125000 320733.218750 -20112.984375
69138.117188 -882790.375000 -42027.968750
-132378.859375 -423274.625000 38668.574219
100953.210938 377962.781250 46576.050781
453161.750000 224479.843750 54001.003906
-203559.421875 523523.593750 8209.778320
-358828.531250 111671.273438 21870.582031
-493106.125000 58560.117188 12562.491211
-794197.750000 -49756.460938 -14911.443359
703505.812500 386436.312500 39214.160156
-643319.875000 -256306.468750 9677.422852
-67103.156250 518408.406250 23288.269531
-324019.843750 651529.875000 -10789.920898
-96608.632812 463476.687500 20255.039062
-317352.718750 719339.062500 -13846.619141
-495351.687500 -361411.812500 31253.976562
430643.843750 57167.707031 25906.398438
-313965.812500 241905.703125 22739.822266
-612474.625000 -215129.125000 11869.621094
-765357.937500 -298249.000000 2357.783691
-27989.150391 538483.000000 25262.234375
-709299.562500 338338.031250 -23008.326172
-728924.687500 367367.343750 -27169.628906
-433697.843750 -140148.171875 29958.837891
-238982.093750 -202024.703125 49375.386719
-789318.750000 -89356.578125 -13561.434570
912697.687500 20370.984375 -37804.453125
329748.218750 155898.687500 61095.472656
68116.718750 -15702.950195 70711.382812
111089.617188 -476316.781250 4488.121582
-617900.750000 -12045.228516 7895.504883
-257426.453125 -191837.781250 47862.382812
-912049.062500 -128057.562500 -20954.138672
-452692.593750 -140309.953125 27362.312500
-852573.437500 -329470.031250 -1435.926025
-514546.750000 304021.750000 -2252.037598
-642601.062500 -218565.812500 9415.768555
-458960.593750 410290.656250 854.363831
345571.687500 -292252.468750 -6542.366211
709819.500000 5561.875488 -13146.854492
-103124.710938 398186.781250 22718.173828
-1050372.750000 65150.542969 -46400.546875
609506.812500 -87571.289062 -11552.279297
-319828.343750 -107213.851562 36658.089844
322381.718750 -636084.375000 -50852.132812
-122601.242188 444484.968750 19585.884766
280086.156250 -806153.437500 -58382.191406
-801987.687500 422884.000000 -36165.570312
435946.437500 83454.046875 27711.337891
-557160.437500 -521700.093750 32725.417969
-589679.000000 433814.156250 -16677.009766
-340645.156250 701257.687500 -14692.770508
-960686.312500 -33896.828125 -31451.353516
-120477.664062 -57082.535156 53476.386719
597695.875000 -316221.750000 -43544.832031
-507782.281250 281289.937500 -486.477966
-920817.875000 -74752.429688 -25234.601562
-211614.187500 -242950.375000 52584.558594
-150293.578125 -90425.390625 52055.796875
-162990.359375 563750.437500 10700.681641
320886.093750 -400946.156250 -10425.555664
209568.609375 80313.359375 68857.992188
786425.625000 247748.187500 9424.028320
-427766.250000 -457135.531250 41067.527344
-884443.687500 -369088.437500 -199.725632
-163591.968750 -835266.687500 -5400.843750
-337155.062500 620629.187500 -9230.804688
-478820.156250 263668.781250 2807.009033
454018.531250 79313.945312 26437.955078
424766.812500 82266.710938 28283.691406
331313.000000 171783.187500 60482.863281
754504.250000 184068.531250 7705.109863
-218975.671875 3941.253906 42432.558594
480195.031250 600782.125000 748.429810
-562061.187500 469611.343750 -15373.061523
-944259.125000 174950.796875 -40234.156250
569442.375000 34593.265625 6970.098633
-347946.531250 696484.937500 -14652.556641
389275.187500 56262.164062 28048.177734
-228994.250000 -605938.500000 24773.259766
692634.125000 271045.375000 23079.974609
-137246.765625 612359.187500 13342.067383
-533061.437500 -556542.562500 37266.851562
-553681.562500 -473088.281250 28926.078125
737435.687500 280682.062500 17068.146484
703144.437500 29895.328125 -12076.633789
-738037.562500 426738.718750 -32995.851562
576397.250000 56973.261719 7820.040527
667216.937500 86634.445312 1234.234009
977989.062500 205279.140625 -17650.093750
679802.750000 20714.365234 -9438.940430
-165890.937500 1039270.750000 -52731.941406
-779432.500000 106354.390625 -17382.566406
-284169.187500 780529.250000 -8958.642578
-663879.812500 261186.593750 -13990.744141
553345.437500 -456662.968750 -48225.980469
86743.789062 -518849.812500 -830.715820
-988061.500000 -19638.480469 -34787.835938
-518202.156250 -565861.062500 38423.613281
79048.789062 347921.750000 46751.453125
43209.171875 -761432.875000 -21176.027344
780371.687500 220911.281250 10353.278320
160397.328125 -932678.062500 -60262.199219
45761.933594 295820.625000 42088.675781
-161252.406250 -600267.875000 20991.937500
-695881.812500 772238.937500 -31256.564453
541579.562500 43342.445312 12079.732422
297880.343750 -378167.156250 -7942.192871
36299.367188 1135062.125000 -59390.738281
21321.175781 -738217.750000 -18756.488281
317249.656250 -569129.250000 -39851.386719
-46316.550781 -467770.718750 26343.937500
123720.210938 -510181.718750 -948.295166
523048.000000 115644.328125 21166.546875
520527.406250 -39586.933594 5037.208008
-492035.718750 -609135.437500 41454.046875
238868.703125 -379660.687500 -2903.272217
-598940.750000 -468637.093750 25598.589844
167681.734375 1217295.000000 -66668.476562
487611.875000 -189396.703125 -10897.398438
-1010031.250000 15336.194336 -39501.820312
42102.468750 224857.140625 45298.906250
-168295.906250 486175.687500 13106.855469
770564.750000 231227.156250 11342.422852
-708618.125000 89821.921875 -7463.556152
828195.875000 461733.718750 33157.347656
158819.937500 1205997.500000 -65795.023438
254217.375000 -787683.500000 -55765.703125
580071.687500 36603.218750 5877.262695
936836.687500 237643.390625 -12587.824219
-566975.562500 -81524.179688 15109.475586
483086.062500 -46461.191406 8657.070312
-111416.265625 -462198.656250 36221.785156
579205.250000 -310034.500000 -41964.117188
662212.375000 -63510.046875 -13637.667969
-246480.437500 803880.437500 -8279.617188
717706.625000 -234631.781250 -49582.507812
-140340.046875 -583452.250000 21673.328125
253154.937500 -139786.734375 25756.734375
-215276.328125 -691677.062500 18038.958984
26575.207031 274526.281250 41743.437500
115469.257812 -33420.363281 69510.593750
-399158.750000 -433311.531250 42036.914062
-146649.390625 -468420.187500 35968.503906
-892129.125000 281669.531250 -39612.683594
643347.187500 245670.515625 24635.121094
-34970.753906 -737114.250000 -13339.133789
-404835.718750 344688.937500 7376.364258
582937.437500 315355.312500 46002.000000
166808.750000 336883.375000 51136.753906
-286349.375000 -108657.937500 39323.750000
623073.937500 821577.625000 1533.869507
674653.500000 268724.031250 24676.968750
188525.453125 -516565.531250 -10442.532227
-32982.910156 -476299.406250 24561.011719
66390.835938 -231144.296875 37795.277344
286081.281250 -288869.812500 -706.950989
-752677.375000 75948.914062 -12968.844727
127957.328125 -242344.062500 29674.271484
-159142.250000 496747.000000 12683.158203
-1075727.500000 64871.257812 -47324.660156
69995.140625 -648957.875000 -15834.993164
270476.843750 -71960.882812 30228.246094
-635779.125000 6624.506836 4546.518555
567876.687500 57828.296875 9140.045898
689112.062500 145811.468750 10440.370117
651966.812500 234468.171875 20767.554688
-364883.875000 -93945.656250 32103.306641
813459.625000 -257826.156250 -56928.066406
-647215.625000 325488.031250 -18093.171875
667102.812500 -330499.000000 -49540.859375
427831.468750 -102689.976562 12572.240234
371465.156250 -273414.625000 -6413.378906
-35289.066406 -89410.046875 61397.574219
-564043.125000 9138.791016 11288.166992
-769005.250000 -109721.578125 -11499.532227
200712.718750 -524837.000000 -12056.773438
469552.531250 -431916.406250 -40601.160156
-38730.527344 -514378.406250 19216.984375
809748.000000 69985.921875 -15510.570312
631230.937500 200587.281250 20420.570312
428283.531250 -609677.250000 -54795.183594
198477.984375 -787434.125000 -50217.859375
605205.125000 186682.015625 21251.808594
352690.656250 -559551.437500 -39090.300781
226333.609375 -779830.937500 -54280.136719
-586617.500000 214117.250000 -4258.797363
67989.359375 -895639.875000 -43096.339844
18140.359375 265102.343750 42051.312500
84971.054688 -643658.250000 -16195.359375
436173.781250 -573353.625000 -49802.414062
856263.687500 263476.593750 1268.682617
-194874.750000 -714982.312500 15356.940430
561387.312500 170257.703125 24059.582031
-1008618.312500 65483.777344 -43872.664062
-981837.125000 -267046.562500 -17884.792969
-483430.625000 -562968.062500 39325.535156
40812.199219 -588618.437500 -9160.572266
-691542.875000 70150.179688 -5162.337402
-472407.968750 351305.625000 91.655144
191367.484375 -246129.562500 21277.175781
62128.597656 -332932.031250 28040.281250
-624302.687500 -94640.937500 8086.461914
-623668.500000 -280388.593750 11318.519531
620565.625000 10992.713867 -4401.193848
644545.625000 -61262.769531 -12811.437500
195420.546875 -562766.125000 -17090.199219
-85446.453125 -876167.937500 -19361.935547
594572.812500 -106103.421875 -10492.626953
804512.875000 243946.406250 7808.659668
-273250.250000 -692765.937500 23207.097656
7093.471191 -331298.437500 33584.875000
-190466.718750 -703724.875000 15746.700195
556185.812500 -442120.156250 -48266.152344
977908.062500 234588.515625 -15542.259766
-22475.478516 -644563.250000 -8957.171875
423460.125000 -565481.000000 -47750.847656
-197308.562500 -577525.500000 24357.476562
238067.140625 -785309.750000 -55284.980469
-962625.375000 248040.625000 -43767.953125
-952040.625000 251583.593750 -43528.941406
554373.500000 -317051.750000 -40640.625000
679163.125000 825800.750000 1832.406372
558961.187500 -129042.617188 -8517.971680
-638873.625000 -459106.937500 22570.804688
-224331.921875 -266563.406250 53672.929688
315081.812500 -264094.812500 -1523.578735
-254134.281250 165990.796875 30637.521484
793868.562500 -194704.218750 -58964.382812
-840281.687500 -348526.531250 860.544189
-855484.375000 68491.578125 -25242.488281
105199.421875 -69616.609375 64946.238281
312040.437500 -47408.726562 28939.671875
-493705.906250 -177901.546875 23452.498047
599515.187500 844752.750000 877.873962
749180.125000 324034.406250 25403.226562
-115922.789062 366277.937500 24184.576172
146513.578125 -924934.750000 -57856.230469
-261048.531250 -598352.937500 26897.843750
-341928.968750 90871.570312 23817.554688
10427.454102 -450155.625000 23355.054688
156983.234375 -777989.187500 -42155.894531
-629857.937500 -469733.687500 23937.904297
-1022341.812500 -287000.125000 -20494.146484
553804.750000 1035171.875000 -45225.156250
788414.062500 -203401.546875 -57742.007812
937363.000000 145677.578125 -24262.937500
-941052.750000 -100302.812500 -24823.646484
-438266.937500 43226.187500 18580.761719
51257.281250 241173.609375 44419.632812
432157.750000 -286577.250000 -12983.041016
-926554.625000 199701.359375 -40154.175781
285004.968750 -373744.812500 -7703.215332
-826763.437500 96562.921875 -23443.972656
48385.328125 187516.937500 47668.503906
637212.750000 -281475.468750 -43850.582031
617620.250000 -278720.718750 -43059.660156
747583.250000 40168.785156 -14948.849609
-350602.656250 -107267.140625 34581.187500
-209688.390625 -201143.250000 50425.472656
670846.812500 -138926.703125 -16965.361328
-132994.109375 -441314.093750 38737.140625
724371.437500 165209.234375 8272.471680
643673.625000 152402.218750 16403.027344
99652.140625 -587946.187500 -13902.152344
381222.625000 -88125.718750 20470.941406
622720.437500 -70013.242188 -12575.727539
-532437.250000 -279334.718750 21530.363281
852607.500000 294348.937500 3573.394043
-566800.812500 205539.203125 -2485.643555
-687375.625000 119794.664062 -7028.596191
-656149.000000 96954.054688 -3806.438965
721932.562500 264792.593750 16773.708984
-1047769.250000 -250568.593750 -24970.574219
343924.062500 -635735.312500 -51819.136719
84334.726562 -91470.273438 63406.660156
-650970.937500 -91718.656250 3559.373291
-918514.562500 -35456.203125 -28536.361328
-497988.406250 -159047.687500 23904.880859
29960.683594 -229472.343750 40873.792969
758602.250000 -13355.251953 -15968.349609
565080.000000 322859.468750 46646.117188
516290.187500 -115467.625000 -1549.973511
260975.375000 -280307.656250 3569.854492
672771.062500 82019.625000 -1178.346680
246870.312500 -495962.531250 -13123.877930
152839.718750 259664.140625 49152.250000
478620.656250 -543927.812500 -50918.066406
-544280.937500 -48196.746094 16025.709961
470631.187500 97361.929688 25930.080078
-547073.750000 151478.734375 1816.183105
-476779.031250 -335166.812500 31297.570312
-1165910.500000 -74926.718750 -51422.222656
843894.750000 251555.296875 3151.703857
-431584.500000 147783.515625 13547.238281
-501959.562500 -83291.437500 20529.167969
549553.625000 111939.734375 16237.099609
-813687.125000 -404509.062500 6225.330566
80621.765625 1185709.375000 -66059.078125
608108.875000 68834.968750 4585.988770
8102.809082 -650894.750000 -11840.861328
-518424.000000 -257245.890625 21329.085938
-21342.753906 246676.734375 42297.648438
-860698.937500 -144559.171875 -15058.492188
-418067.843750 30584.056641 20546.548828
270777.437500 -638370.375000 -47834.375000
129257.562500 -587541.187500 -15487.143555
-113486.882812 -623210.437500 15118.732422
93324.812500 315839.250000 46819.207031
-452313.906250 -249138.609375 28855.710938
-168196.578125 -537032.312500 25683.160156
467950.531250 37652.132812 20537.398438
485209.968750 41044.828125 17792.234375
-377459.656250 -113991.460938 33049.324219
493628.406250 -330832.031250 -35396.636719
177600.812500 -251678.515625 22126.951172
267507.656250 327322.156250 40100.562500
382464.093750 72256.789062 31146.464844
-1218527.125000 -104677.437500 -54063.429688
668876.375000 313878.375000 35914.585938
-929789.125000 -258877.218750 -15168.067383
-1228550.125000 -98242.414062 -55263.769531
97918.140625 -496209.343750 3554.438477
-41999.277344 -429935.000000 31667.361328
-541232.187500 -242191.140625 17902.126953
113163.578125 -172927.046875 39139.121094
87393.125000 -623700.062500 -14769.340820
944437.812500 -241529.656250 -57084.257812
-358391.062500 -704982.375000 27884.296875
-747732.375000 -21634.054688 -10776.405273
201160.250000 -906553.500000 -61676.332031
912763.062500 -173189.421875 -53482.781250
551274.562500 784249.187500 585.879822
-341774.968750 188770.546875 20983.142578
-774409.187500 -438888.062500 11376.065430
309312.437500 -154275.984375 19839.253906
337057.031250 -226653.718750 793.797913
-300846.625000 658690.437500 -10382.597656
-590184.125000 328168.562500 -15340.830078
-1101437.625000 55867.347656 -48160.628906
-480434.625000 830997.375000 -32190.974609
84184.328125 -216067.015625 37014.878906
-103431.242188 586677.625000 15888.147461
-428283.062500 157837.781250 12982.640625
-628392.250000 -150031.734375 10091.602539
873064.562500 -183215.265625 -55913.375000
9659.470703 -626873.875000 -10853.714844
24218.607422 -607697.687500 -9720.536133
-907104.062500 -350242.687500 -3844.052002
216974.609375 -679964.937500 -46710.437500
357628.437500 -712055.375000 -56741.152344
456454.312500 621911.375000 -368.177063
826173.875000 975801.125000 -11800.010742
257383.156250 -595435.687500 -36063.519531
-290104.781250 98920.039062 28284.074219
-827600.000000 -209937.328125 -9901.583984
-4021.526611 -651321.437500 -11235.754883
577689.687500 829342.625000 1690.962524
-310776.250000 672223.750000 -11706.893555
-318657.750000 174784.437500 23749.263672
773807.250000 -4853.744141 -16644.107422
-550323.000000 -100102.992188 17091.775391
145908.578125 -522132.625000 -4534.740723
762975.312500 134422.734375 1965.558228
163027.765625 355155.718750 50880.656250
-868087.750000 -49336.058594 -24026.611328
602347.375000 5113.780762 -2130.340576
197413.656250 -371795.812500 5937.929688
951241.937500 151844.046875 -24326.195312
344035.156250 -724727.687500 -56437.539062
708862.937500 164746.484375 9587.081055
-361238.625000 -417035.812500 44393.453125
764037.937500 281134.031250 12000.691406
-443382.437500 -390680.437500 35248.332031
430985.093750 -419294.781250 -31003.005859
-183770.281250 1024541.750000 -50200.734375
